# .PCD v0.7 - Point Cloud Data file format
VERSION 0.7
FIELDS x y z
SIZE 4 4 4 
TYPE F F F 
COUNT 1 1 1
WIDTH 696
HEIGHT 1
VIEWPOINT 0 0 0 1 0 0 0
POINTS 696
DATA ascii
1.6500127298263862485	-1.8148123496094650253	0.064450636445135836561
1.6498859223686999087	-1.814814054047717562	0.064325622828220893612
1.6497516162839460652	-1.8148158959446591965	0.064198011219868247879
1.6496164515906062142	-1.8148192727345167086	0.064070484082634257539
1.6494561909157328117	-1.8148244876643695456	0.063924518206523214814
1.6493160081663365002	-1.8148316835878959274	0.063800089636463844234
1.6491952756507284317	-1.8148401983856023989	0.063693272607148188058
1.6490635919158138645	-1.8148496787585144396	0.063581176945004383438
1.6489314284704728042	-1.8148600651316828536	0.06347295061806682015
1.6487790061060190183	-1.8148694047237352578	0.0633578057820640278
1.6485291263654771043	-1.8148812127833100494	0.063180672440134810763
1.648382680975499115	-1.8148865204339712509	0.063082432506814459239
1.648233836200966751	-1.8148898206821169055	0.062989044559552939684
1.6480819501547918637	-1.8148925176104864221	0.062897930888801897864
1.6479369382064863458	-1.8148942520565785053	0.06281340953085708112
1.6477816202767481268	-1.8148954817653131233	0.062726574544284360857
1.6476188602189838495	-1.8148993507968045336	0.062633940861233430852
1.6474571201751204708	-1.8149058468093512975	0.062540113758698778756
1.6473035629716301642	-1.8149158828526081866	0.062445942085823540058
1.6471470593619623735	-1.8149303508444736277	0.062344107324729711173
1.6469911443886899871	-1.8149473525593471379	0.062240703921751544536
1.6468397386049236086	-1.8149641712192063903	0.06213565434211030386
1.6466972199485461203	-1.8149811639960111709	0.06203141701879553993
1.646559833164684461	-1.8149964115123584651	0.061926391461713269082
1.6463372005123126929	-1.8150151803100100789	0.061752624476653063257
1.6462633733764668875	-1.815018945737011169	0.061695215554146427828
1.6461641249161500511	-1.8150171631462050925	0.061622926433495900378
1.646074745415041729	-1.8150083610702081316	0.061560602315434080622
1.6459892120601962162	-1.8149883092282701469	0.0615076613815000936
1.6459106922457498179	-1.8149636295532987074	0.061461540496306005243
1.645834775256293403	-1.8149351654725489613	0.061418688788900832609
1.64576581007307432	-1.8149037184768743725	0.061376946188163465645
1.6456950944530641667	-1.8148629822268764755	0.061329943281038100389
1.645635394617892322	-1.8148193158703080918	0.061280253289500312419
1.6455751767846493738	-1.8147713046297562212	0.061224549515783613374
1.6455162500270203996	-1.8147192963472305038	0.061159921619226807754
1.6454495516344891382	-1.8146561225408937013	0.061074682558683555944
1.6453869383174140051	-1.814598149371215996	0.060987978724776001349
1.6453244300815597079	-1.8145356433947663621	0.060892199375541355977
1.6452560470191288644	-1.8144719661291077717	0.060788117209751565961
1.6451893236874504112	-1.8144052852506431517	0.060676548209873018558
1.6451272037065558518	-1.8143373827563025191	0.060562383469765689037
1.6450700147982408872	-1.8142688228249113092	0.060448036178576178279
1.6450211087880539651	-1.8141944393920932388	0.060327457001849049689
1.6449815028790000238	-1.8141166927550333998	0.060203687954791501591
1.6449509967618956008	-1.8140452086294687195	0.060093213744594156656
1.6449193908677879339	-1.8139661415114691767	0.059972545383539827002
1.6448810637246098487	-1.8138680235315256528	0.059833242292987885713
1.6448025482730410651	-1.8136386957354153626	0.059560233044138877201
1.6447681380568592857	-1.8135497986336304166	0.059461287337077041448
1.644738122343789577	-1.8134740671115243682	0.059381379639250261859
1.6446993839301338181	-1.813376364687956821	0.05927862892611428236
1.644654578777898557	-1.8132759663979065579	0.059177405636945068501
1.6446091497886550226	-1.8131764563185066574	0.059080020468894781094
1.6445527930729106902	-1.8130796761440044484	0.058986154890265887762
1.644490225599020361	-1.8129808822113531175	0.058891219167892625008
1.6444239545611214481	-1.8128842339132764661	0.05879688833667243153
1.6443460043972377704	-1.8127936306815179979	0.058705886695105534423
1.6442643220465464893	-1.8127045769310041745	0.058617285752062979476
1.6441807045844212265	-1.812619749850579387	0.058534296696576858243
1.6440882583493321434	-1.8125251879204591354	0.058439384840936511867
1.6440029498699355592	-1.8124437810506226487	0.058353447602899163882
1.6439201030702443873	-1.8123738838225038617	0.058276553132718678096
1.6438247869557807146	-1.8122990626799984071	0.058192062457481541493
1.6437276474335409393	-1.8122264107300900537	0.058108289598592988145
1.6436364635203126738	-1.8121569415465259567	0.058025041943011730627
1.6435548699898372416	-1.8120946066626952842	0.057944363900939162282
1.6434709953751247546	-1.812029338248132726	0.057852612667810991709
1.6433313000106943846	-1.8119165954506208926	0.057679961814833376199
1.6432756554153276074	-1.8118654732246257666	0.057604231382084675195
1.6432092924240697673	-1.8118086945805453869	0.057512123346030154247
1.643155407461852846	-1.8117608040075308118	0.057431418532674652355
1.6431085594475474121	-1.8117090112530951362	0.057347364614919418835
1.6430735572392567434	-1.8116575380111799021	0.05727103623014073025
1.6430500288345588622	-1.81160871205170948	0.057203926180612971186
1.6430281320711666027	-1.8115632652304358707	0.057145056605541248718
1.6430114479672901506	-1.8115202481880481322	0.057098760871249369664
1.6429951290179245493	-1.8114809776301614708	0.057063716961184889065
1.6429770677218509256	-1.8114474770921942248	0.057039561761235202386
1.6429540246970557593	-1.8114164689474387959	0.057021820955203778025
1.6429292146470344527	-1.8113960833398583539	0.057014554353677499021
1.6428900099750320951	-1.8113772992023722264	0.057010737386473622768
1.6428569815416598221	-1.8113655671727757479	0.057010520306863071704
1.6428156395049511307	-1.8113542256485284376	0.057010558576114263307
1.6427698038349478615	-1.8113425232403641552	0.057008940690520086558
1.6427213289444748678	-1.8113293407119939182	0.057001442748676682537
1.6426698006471176505	-1.8113140733894135259	0.056988274073968975264
1.6426128343791064346	-1.8112956792357668423	0.056963101997209747429
1.6425577124513883742	-1.8112809129640534689	0.056930646854586791639
1.6424974457046421783	-1.8112680416051809562	0.056890638773099105885
1.6424375536268338571	-1.8112554638274811492	0.056844966804591029463
1.6423799767241351599	-1.8112435003236611042	0.056793816303332293749
1.6422210239798769038	-1.8112230209875110898	0.056651015667696591471
1.6421826944136632687	-1.811221137148613991	0.056610728507036828239
1.6421348560743880274	-1.8112242315310067564	0.056557376876656531572
1.6420951105152576943	-1.8112348398330051502	0.056508848617387766322
1.6420536442551456613	-1.8112521371664442871	0.056463052602329130703
1.6420163884954244171	-1.8112798427448824068	0.056421525028857416606
1.6419730829726686405	-1.8113191587392492021	0.056382134434507860665
1.6419289895122683998	-1.8113618061920717661	0.056352133471594512137
1.6418899255210490651	-1.8114003288390445601	0.056326690516248306695
1.6418353601798325592	-1.8114539850593271986	0.056302602931312860368
1.6417797386373806923	-1.8115146987438401904	0.056285103042106758575
1.6417132501916342768	-1.811578761048752817	0.056274347580963411664
1.64163888330630936	-1.8116459789626913057	0.056267735016084695354
1.6415573726063152904	-1.8117168745611338387	0.056264891164247959887
1.6414606437985692633	-1.8117884566093058751	0.056264624136714104508
1.6413579233701973692	-1.8118614107018264914	0.056266375769802659534
1.6412487491353779934	-1.811933301059936996	0.056267403414219513413
1.6411293868536895868	-1.8120031189939878047	0.056266553442383411554
1.6409914658234414642	-1.8120807779205017063	0.056263983342646803343
1.6408685936894631396	-1.8121500172133218065	0.056258599486850358051
1.6407578660987240937	-1.8122047153316049872	0.05624887493627482582
1.6406394174726643964	-1.8122595599846731407	0.056234061613279512359
1.6405191395674563193	-1.8123128229936804612	0.05621467389101041795
1.640409707295900521	-1.8123583716509792385	0.056193437614832732196
1.6403027347055469942	-1.8123994593081937943	0.05617030969642505811
1.6401983147274468156	-1.8124442609764621626	0.056146603456667665277
1.6400995115071590469	-1.8124813799207823983	0.056123604121464887307
1.6399984093598147794	-1.8125130082785583241	0.056100217166321013351
1.6398975645351596686	-1.8125437592303923484	0.05607807836397298018
1.6397967218844526904	-1.812571430279917184	0.05605839715792713257
1.6396874907518244058	-1.8126006861898824596	0.056036435269664730541
1.6395767679649395632	-1.8126295568814214665	0.056012490705497790244
1.6394697320565387866	-1.8126567271882163546	0.055992122911908671912
1.6393450190753504625	-1.8126893926344744834	0.055966526028555035888
1.6392024337322330663	-1.81272974834728684	0.05593540507582505511
1.6390865913677570287	-1.8127634259170575248	0.055908133482267252656
1.6389593980478489588	-1.8128027261130590375	0.055876598693897869263
1.6388407526485913035	-1.8128437566268575942	0.055847642371750529089
1.6387020334143789224	-1.8128913174849159429	0.055815349406342931737
1.6385799044611264463	-1.8129373902859797774	0.055783937704645514266
1.6384684306940073828	-1.8129850330351438004	0.055755533284678464312
1.638335756650514341	-1.8130464183368411035	0.055718943528275340082
1.6382614401747273014	-1.8130802120331883653	0.055696747350879358129
1.6381906678695745683	-1.813112046387652887	0.055673170106866384788
1.6381213152407898548	-1.8131383420011932817	0.055647503538059174544
1.6380589273643759718	-1.8131583510330260278	0.055620803145584145344
1.6379991645839713232	-1.8131703449293701258	0.055592411968425820001
1.6379456711180666595	-1.8131756933650846619	0.055561842158985977336
1.6378910905557539923	-1.8131724161218714109	0.055525662243458839828
1.6377888522878154554	-1.8131455596794217033	0.055434931295846492927
1.6377485926319204079	-1.8131270645417683074	0.055392304269797146277
1.6377151404262395573	-1.813106800191407908	0.055348894628285211228
1.6376716357052569784	-1.8130794241877075113	0.055285529416093638633
1.6376282088766593859	-1.8130489026816902776	0.055213091767443218949
1.6375841113597189302	-1.8130171580490563876	0.055134254336489357806
1.6375380740451104256	-1.8129819676473755141	0.055051348208858319477
1.6374911338402402539	-1.812941367417182148	0.054966188455904708976
1.6374370445504318194	-1.8128987723961360601	0.054879424601782703097
1.6373880796357909162	-1.8128546078686718079	0.054795832945421750482
1.637341471385367786	-1.8128044381830534792	0.054716227774741360568
1.6373018331006032877	-1.8127478402684746861	0.054646380898390432834
1.6372544940835762617	-1.8126658184975912302	0.054573057555472176405
1.6372266976276872441	-1.8126089058430061574	0.054541684426327778634
1.6372021973521793115	-1.812546178634771632	0.054525824130817246438
1.6371738346604682857	-1.8124647721696351965	0.054525101477792853322
1.6371391941360564637	-1.812384080264647146	0.054538558956710607439
1.6370992155721508787	-1.8123062993158858269	0.05456116129453535829
1.6370503924077699498	-1.8122364192247195636	0.054585288296773434857
1.6369962441168683931	-1.8121749450618984678	0.054607306038180807028
1.6369396728499081561	-1.8121239256541252782	0.054622768652812382639
1.6368824682242915092	-1.812084324592805995	0.054627242390788172122
1.6368274959139514912	-1.8120595511821246948	0.054616073926684625961
1.63677905924535394	-1.8120522130965870389	0.054584390663578209735
1.6367459803724582201	-1.8120581538925697451	0.054531429086690792751
1.6367362489952836935	-1.8120719029890763885	0.054464937315354393366
1.6367442624837975629	-1.812086318349050984	0.054387982754872124525
1.6367775840395184517	-1.8121018686651650942	0.054289573953142045148
1.6368297862472001025	-1.8121091175462544776	0.054182934979600541614
1.6369053697121340729	-1.8121070302852493317	0.054073218786001027436
1.6369985501481245649	-1.8120885119107643657	0.053967035690214111565
1.6371074019447804382	-1.8120589861425386857	0.05387184158719366539
1.6372288132357910584	-1.812027197809756407	0.05379397364257999109
1.6373656526488198359	-1.8120044879728647302	0.053739698786388331864
1.637509825828944221	-1.8119953542398605784	0.05370732468736978682
1.6377029247463295025	-1.8120075506004800214	0.053696715451263296592
1.6378533712711802472	-1.8120257622416211518	0.053703560039201847509
1.6379767022369275953	-1.8120513255099379712	0.053720708484910346947
1.6381043498720893048	-1.8120815774363878692	0.053747828867129109065
1.6382234646605746686	-1.8121177513179642649	0.053782587748280555329
1.6383489101809221022	-1.8121613832366878505	0.053819645386655588781
1.6384284483828073231	-1.8121915843498781484	0.053841988251295436196
1.638573609147797594	-1.8122521533256026327	0.05387468571181864424
1.6386342454837508065	-1.8122804104253547042	0.05388267104483283193
1.6386927908442034951	-1.8123081815381736348	0.053879697425804361222
1.6387378803258940696	-1.8123305918212870846	0.053867289687111255536
1.6387685590928839918	-1.8123439241794918608	0.053846230276516686419
1.638789232667493545	-1.8123514320008426992	0.053812755918428815949
1.6388022137618947216	-1.8123548021975413036	0.053774656887573581143
1.6388036113514672376	-1.8123515944304520175	0.053732497929370001688
1.6387927409136149315	-1.8123455508259447289	0.053682734685196985269
1.6387667999042632161	-1.8123372017387864297	0.053629682136624778899
1.6387137356940744137	-1.8123261465025641836	0.053558664904654204597
1.6386548536794878217	-1.8123228114620961726	0.0535045492078531984
1.6385904707755145626	-1.8123273404739697057	0.053456910195259936536
1.6385238966741866307	-1.8123339948262169319	0.053417243993295795979
1.6383658344708853516	-1.8123553043204569946	0.053340741839418233383
1.6382642408598000472	-1.8123734453994442273	0.053299546293716505707
1.638147283662692022	-1.8123968355841744149	0.053260843223938356128
1.638010926351895824	-1.8124194646682878496	0.053224922644407181294
1.637859010889274769	-1.8124415449851536408	0.053192799683364849761
1.6376722298768344732	-1.8124645396149645649	0.053159196041899385576
1.6374817103790619832	-1.812484376116928475	0.053130573823040802561
1.6375708152806183193	-1.8123323078094004668	0.053221394895363545452
1.6377304838380839502	-1.8120792013091011619	0.053383902761935136949
1.6378385243215911604	-1.8119140353146632183	0.053493705390081643103
1.6379396038032254523	-1.8117390121223113653	0.053608058116176242336
1.6380385039465452657	-1.8115671596963529577	0.053720350000223709985
1.6381427413904490198	-1.8113874088224612979	0.053839550556170921725
1.638267092031678196	-1.8111620226133338107	0.053985091615837581258
1.6383481321888491156	-1.8110265344657729969	0.054071056525035868234
1.6384328786752095919	-1.8108919517708017555	0.054155367910217543093
1.6385310673001594051	-1.8107434093777015072	0.054246931870887832305
1.638629809243277391	-1.8106031727146456589	0.054332112480604682903
1.6384550488061917495	-1.8106350589519391026	0.054311173271771429061
1.6382905485405279133	-1.8106633795435393974	0.054294375739191970409
1.6381354339255074226	-1.8106852816299194853	0.054282812878853767269
1.6379846975809768672	-1.8107006497559003932	0.054276898092963460352
1.6378431187473401209	-1.8107083503462768626	0.054276924854464704551
1.6377060704453472173	-1.8107083205860137198	0.054280163480315682389
1.6375735606017791657	-1.8106995258929146075	0.05428832093255901714
1.637433265084720313	-1.810679220238956777	0.054299554071688418966
1.6373165666212263769	-1.8106507566125034092	0.054313038954160439142
1.6372198393490224877	-1.8106182572621845051	0.054326687980146344537
1.6371176367340065649	-1.8105743160408560577	0.054340471134208555293
1.6370223190989590112	-1.8105230761779527171	0.054348351451778006971
1.6369351639423823652	-1.8104616147556367167	0.054349741935093301426
1.6368606158984722043	-1.8103967080723892824	0.054345473896578379291
1.6367946899552403561	-1.8103193743154613049	0.054330348691035139364
1.6367380594717679809	-1.8102431798959370823	0.054304817948187575349
1.6366947900738606503	-1.8101577229550496195	0.054268310915420857332
1.636668758601050655	-1.8100667571506487974	0.054218324443679508096
1.6366576779404575781	-1.8099695120463350495	0.054153446950985617558
1.6366683490251066058	-1.8098234620480107004	0.054044094930429179002
1.636687419929098164	-1.8097272619858701947	0.053959168267550608467
1.6367206992455947123	-1.8096268997263389444	0.053854339829165563669
1.6367734554054427232	-1.8095065956863789491	0.053711615627525896577
1.6368420185399328304	-1.8093824540904452913	0.053544152180089801818
1.636922044530309206	-1.8092543508092775451	0.05335440752007559323
1.6370101808946115884	-1.8091207801505226893	0.053138318989971400352
1.6371073370105932998	-1.8089814290537722385	0.052907453238667648265
1.6371998100805833509	-1.8088201229173603846	0.05265720776996394431
1.6372773674266778432	-1.8086377687922554625	0.052396627983153802599
1.6373262446868854791	-1.8084268130421541354	0.052124260325029675434
1.6373348767527007297	-1.8082013685095106315	0.051845930100596043788
1.6372805384377695503	-1.807893143896444732	0.051467908236614921813
1.6372137860827211675	-1.8076925414133835357	0.051214380598820753721
1.6370944277985035598	-1.8075186582150086778	0.050972173330559596149
1.6368858970012447607	-1.8073760490975006032	0.050703444656669365009
1.6366290159033989315	-1.8073336587058905778	0.050449305276961391165
1.636366029877700301	-1.8073928766102678178	0.050203544639507616254
1.6361156031042436432	-1.8075328453623187297	0.049957537390555417645
1.6357267865807452178	-1.8078811434802546376	0.049532896967837539148
1.6356064062520276892	-1.8080368528038830434	0.049380284040879837693
1.6354114539170248044	-1.8083777454359384329	0.049083562131457751654
1.6353122077877475515	-1.8086048214734848916	0.048903225066738088833
1.6352335158406277049	-1.8088421374452623436	0.04872544955369782077
1.6351518955542174716	-1.8091123982519727864	0.048526975268087600701
1.6350774146867406156	-1.8093845076064185573	0.048328512791106899293
1.6350083824526635556	-1.8096431301080138088	0.048137246467624919544
1.6349374394562377066	-1.8098838094823070932	0.047947074669803572966
1.6348636955244624236	-1.8100866918063547306	0.047767388873259299109
1.6347810015894419511	-1.8102498594356855044	0.04759394970706428557
1.6347040538146624389	-1.8103773236614240094	0.047430379204939816795
1.6346511555345297761	-1.8104870103442247675	0.047282387361819132321
1.6346200456621082786	-1.8105935942061543997	0.04715232916133584723
1.6345734099748534529	-1.8107283379052112604	0.047028450891204463813
1.6345130822206499488	-1.810861944001039614	0.046945136712966954728
1.6344444935305681987	-1.8110056441348092449	0.046882787667797611031
1.6343588527650698694	-1.8111714078044975906	0.046828941038676026587
1.6342470202925734046	-1.8113597907545726517	0.046784955300757394281
1.6340975255167686786	-1.8115829325221282087	0.046745995273242205159
1.6339332045378371916	-1.8118016683358966201	0.046717705186102416459
1.6337510514097826064	-1.8120280302312121723	0.046705200356590974298
1.6335434545563276565	-1.8122617317465268272	0.046709734917400602683
1.6333235123822655854	-1.8124821107343700444	0.046730948572268761476
1.6330170664585696993	-1.8127580307460346987	0.046774966440891560526
1.6326324481266449862	-1.813046787486631839	0.046834950271904117469
1.6324027157892504469	-1.8131913269792361287	0.046875809134441316639
1.632101259525100323	-1.813348817665939805	0.046928258271746570163
1.6317539650287058439	-1.8135010694590620872	0.046983864896014741752
1.6313784329536729079	-1.8136353496200618984	0.047033572234871999507
1.6309926032575678967	-1.813776726193972344	0.047070970091169825333
1.6305841355104480073	-1.8139038071406106134	0.047090927247653305288
1.6301735898514515544	-1.8140382881609220522	0.047091977747439332791
1.6297435899297374462	-1.8141665187188906749	0.047077908312042615613
1.6293190080653707774	-1.8143099291474469315	0.047046369639640012172
1.6288762359863009355	-1.8144481639720047017	0.046999357113928018348
1.6284368992405784393	-1.8146124448916107763	0.046939347924060015327
1.6279754636643530841	-1.8148194555005832118	0.046868614355040437436
1.6275124403006386853	-1.815033353116461301	0.046799521827547714559
1.6271111616150570889	-1.8152340422213268933	0.046745651145569798446
1.6266846974932842596	-1.8154899210255850406	0.046689353652193330002
1.6262581570647538509	-1.8157482312503268052	0.046633565254769845931
1.6258452352910564009	-1.8160348834952750874	0.046580284237239123757
1.6254474114193975254	-1.8163147457468469259	0.046534045386559107216
1.6250338491895115478	-1.8166090316783987113	0.046488710377568222276
1.6246681173883541494	-1.8169100449499189232	0.046449500029576491766
1.6243010522633669623	-1.8172304239480832067	0.04641460764896958302
1.6239317351804185563	-1.8175661770087983005	0.046379257683316625627
1.6234397456483646849	-1.8180639162656424546	0.046323595220740657052
1.6231890448217827227	-1.8183328844498181098	0.04630265472458466175
1.6229006717200817889	-1.8186610662252000736	0.046272094693270961197
1.6226189344020744976	-1.8190149401888495717	0.046237871692187730577
1.6223539769717465475	-1.8193811157209653917	0.046198609649960753476
1.6221114524872048968	-1.8197542447854488934	0.046151871271595763802
1.6218872995832041006	-1.8201334697183573219	0.046097531577944404757
1.6216825617786445601	-1.8205081212216911446	0.046039115286075758815
1.6214880178366131158	-1.8208947028617987751	0.045973945347786711324
1.6213001430025775207	-1.8212899470615935282	0.045901315088890011495
1.621119907506762825	-1.8217032063442823997	0.045819545104025562188
1.6209459285563789788	-1.8221251407290017799	0.045730607922324091608
1.6206973408515341628	-1.8226676641968460046	0.045615466110133243149
1.620537834241659203	-1.8230338551488343146	0.045541001086178506396
1.6203400610596954134	-1.8234404033217381791	0.045462747907434021555
1.6201363258180792037	-1.8238893680012098208	0.045390974736066971862
1.6199142560167478777	-1.8243227193620223936	0.045343107832270503066
1.6197015995889030293	-1.8247474209014298285	0.045321813789076070833
1.6194996866901179011	-1.8251696870655582661	0.045329347444747598861
1.6193241464369703131	-1.8255729165162795091	0.045359113712475453151
1.6191632205702530811	-1.8259509358247771882	0.045413579599754325122
1.6190440135618466844	-1.8263155665768406877	0.045485549270295001778
1.6189600449752310496	-1.8266592895415878495	0.045563108953319830796
1.6189003546689497703	-1.8269779413889495334	0.04563917532697905205
1.6188536737799612553	-1.8272901273450012916	0.045716594481551693641
1.6188125179333028303	-1.8275555079711081063	0.045776028161985518605
1.6187772811418834618	-1.8277597734540782515	0.045818157154508237783
1.6187373095351418328	-1.8279812063047446991	0.045859970517060810735
1.6186980341118768489	-1.8281876936439158676	0.045894216981971797109
1.6186594893207857382	-1.8283724119425295296	0.045928758775229470979
1.6186236206799851089	-1.8285406794430274502	0.045971287306482949697
1.6185852813086147872	-1.8286837519287455489	0.046025703759788982872
1.618542457559470682	-1.8288007112546516009	0.046091915191201898727
1.6184963739888948986	-1.8288925171721581719	0.046169626924081934305
1.6184508278257272451	-1.8289574429088650831	0.046254021654028157351
1.6184098717198265316	-1.829002528532993388	0.046345585421021261163
1.6183801581200216724	-1.8290280250109698379	0.046463562585686429829
1.6183693011329058908	-1.8290336634655028902	0.046543769242893849591
1.6183654848492383671	-1.8290311529774023747	0.046627207825882373282
1.6183678633763538546	-1.8290165842109928906	0.046730672662814505547
1.6183797601805949284	-1.8290060285737861356	0.046828710747889808197
1.618410992908085877	-1.828998525970523259	0.046925949776755661313
1.6184640958131095712	-1.82899259224282007	0.047020604133420067228
1.6185426073815514236	-1.8289872324834868245	0.047111973342324670044
1.6186500252397315602	-1.8289861985213899942	0.047201853259727880041
1.6187870664618171368	-1.8289882135391066775	0.047278709564395088316
1.6189564972801262499	-1.828988680596391081	0.047343681257742596669
1.6191625114943097863	-1.8289878213711501242	0.047398551644979212971
1.6194009932142121588	-1.8289806728050961304	0.047425808396632941621
1.6196734464111026686	-1.8289646410574986746	0.047428048281309607981
1.6199624740091169706	-1.8289295920042827337	0.047402025034841983875
1.6202305514182353541	-1.8288822641493251986	0.047358475030679768325
1.6205395699072462357	-1.8288153589938700438	0.047289211953909796038
1.6208632435957388562	-1.8287336508649421063	0.04720269661301827735
1.6212054516605742815	-1.8286375409865793795	0.047091992510790804671
1.621533739916484862	-1.8287993410429737029	0.046966565138999702422
1.6216618778220437402	-1.8291829612307519692	0.046817886847187899224
1.6216153994414432837	-1.8295943798677278824	0.046653510248685498008
1.6214818603553571297	-1.8300028411101147974	0.046462539926947467317
1.6212667308721706583	-1.8304903903038689528	0.046186065549607149827
1.6210746956090407167	-1.8308385753314500022	0.04597690991537402988
1.6208761231608443953	-1.8312739864570766191	0.045693505999208114399
1.6207114868347467507	-1.8317381598634066009	0.04537404482113780585
1.6205468433953085228	-1.8322139146475424631	0.045021672199177957541
1.6204000541268375191	-1.8327067006047570441	0.044636701734202567649
1.6202990586892709324	-1.8332085718641089045	0.044237941707071896935
1.6204634502764321269	-1.8326821875713477095	0.0438683278865258236
1.6206008366123352271	-1.8321281604301207224	0.043510681490464657439
1.6207184605632527497	-1.8315459395636257689	0.043165250238396950244
1.6208219642285228712	-1.8309885641008496471	0.042862751805473678357
1.6209225348458928817	-1.8304320483819571663	0.042581954694266524464
1.6210305860240890041	-1.8297783680262778017	0.042276027032128161987
1.6211489217959691445	-1.8292701468300633927	0.042018708524727270415
1.6212672898910107655	-1.8288900979436861771	0.041784850830193412397
1.6214204921479113963	-1.8285333493063655741	0.04147441769511127363
1.6211983725302194781	-1.828739300309028426	0.041132836073682357836
1.6209410339831149539	-1.8288168824751922514	0.040766174448328966473
1.6206519380769597305	-1.8287986914686855666	0.040369224050700425188
1.6202937586966879024	-1.8287494579650913629	0.039928296124559767288
1.6198376358599595459	-1.8287369925556551387	0.039463041427883698009
1.6192990416651977803	-1.8288021056088474836	0.03902320475735780031
1.6187105293949237694	-1.8289587650917775719	0.038620007815493399839
1.6181073956425822136	-1.8291930854680875651	0.038289574754024668923
1.6173954411873812109	-1.829535531465118936	0.038015081971273456674
1.6168778138888180163	-1.8298374501122687263	0.037875330542896164243
1.616265273098872024	-1.8302648876315501525	0.03777534916743904847
1.6157518330762641323	-1.8306967112522742891	0.037723557698421263107
1.6152890261499781577	-1.8311598089193301675	0.037695736782457460456
1.6149067266942294108	-1.8316091559801583877	0.03768800357312197119
1.6145857470751321383	-1.8320395774177598014	0.037685204956943163523
1.6142947012192787604	-1.8324482542491506987	0.037681074802530599432
1.6140269948355305818	-1.8328541756562131138	0.037665041445939961839
1.6137591003650673116	-1.8332742606129912577	0.037663041369601669983
1.613502889434620835	-1.8336719299321750931	0.037687586971050665574
1.6132504713568671662	-1.8340733974921161753	0.037752991155066896456
1.6129379874906588643	-1.8345047094468178717	0.037872188063295522675
1.6126913330516414735	-1.8348016183129050027	0.037995439292245428153
1.6123512930432724044	-1.8351257196597099419	0.038178420018989960016
1.6119875822426816825	-1.8353787969659525192	0.038378749819957480582
1.6115694393032278242	-1.8356227535066682588	0.038600922148498854891
1.6111061243207789317	-1.8358276349238698	0.038817719791819554898
1.6105976379959441314	-1.8360522059857944388	0.039031235636908447051
1.6101426550431223728	-1.8362325924902664909	0.039199944078037216033
1.6096309962851620412	-1.8364479195382841237	0.039369030972868396256
1.6091072074800991665	-1.8366587266783203081	0.039522031096493555336
1.6085644545565638275	-1.8368868937165243604	0.03967248523097676588
1.608001309646948318	-1.8371372561075118846	0.039825157158440059602
1.6073116780512264334	-1.8374725966328631088	0.040005428501878756431
1.60679875545663986	-1.8377235181033380051	0.040133181944038580358
1.6061559113788621556	-1.8380386400600372543	0.040280669787752312883
1.6055139795143285042	-1.8383386573258451158	0.040418218707604786077
1.6048253884707843753	-1.8386477034211616832	0.040549382923863855344
1.6041278461151486923	-1.8389413829948795254	0.040647126313300516176
1.6034351994385538376	-1.8392224347620742542	0.040712259755800055128
1.6027032690636902057	-1.8395160577807410096	0.040750177360158408579
1.6019800706249724964	-1.83980284006410999	0.040765010735975805434
1.6012555143586912898	-1.8400824472806753818	0.040760551996710282785
1.6005208734251228364	-1.8403549130588947591	0.040737695799853292089
1.5997120011475178813	-1.840636541108046087	0.040694329292635750273
1.5987208163267567773	-1.8409616930365721998	0.040616301512280274244
1.5981449457178149576	-1.8411258078546881567	0.040551979802481930015
1.5974107363492686673	-1.8413098457463061841	0.040448039580978742413
1.5966553244547569967	-1.8414685959944758764	0.040313940211076829123
1.5958939118898594067	-1.8416033267653086902	0.040146867985915317412
1.5951347390885644018	-1.8417301165843373845	0.039953778394791632234
1.5944101373136538857	-1.8418568697989656791	0.039762422766095012472
1.5937167574463340092	-1.8419839391966779107	0.039584810457882584067
1.5930597987756969225	-1.8421103530437730189	0.039433847609564004477
1.5924097172850815163	-1.8422295644447641561	0.039285085123814914021
1.5918104917846427337	-1.8423957783692461732	0.039172363594051705371
1.591167042661592701	-1.8427084771587414203	0.039075145099130556559
1.59016199747735687	-1.8432408969803366627	0.038912049368543789873
1.5897740666737882886	-1.8434502183075998083	0.038841341647325340614
1.5892190293554344649	-1.8437533751081061073	0.038724867200041750148
1.5886696503747732567	-1.8440585376728912959	0.038591899350007605185
1.5881196170560041292	-1.8443740274843651861	0.038438719037617641305
1.5875725530310524913	-1.8447081022544420392	0.038271472869892499136
1.5870569053009531135	-1.84504251809891473	0.038101162157032346378
1.5865928841774581404	-1.845399538834546993	0.037933638872791247687
1.5861517860091589593	-1.8457375916648208758	0.037766080986585202905
1.5857566958577316019	-1.8460438633625024796	0.037612949068936481212
1.5854337021491362592	-1.8463340324259909231	0.037484271293809864889
1.5851280207949627332	-1.8466184304990960197	0.03736910908002545606
1.5848508294658321116	-1.8468880022708773492	0.037273534671392979933
1.5844278995361984474	-1.8473341980216260172	0.037150679893238128249
1.5842286611735236779	-1.8475727092986535816	0.037111806778915304439
1.5840717730245685857	-1.8478042324389556406	0.037100406077957406858
1.5839781964259729286	-1.8480172388702063024	0.037121807412227113276
1.5839352281176766191	-1.8482092583322633494	0.03716737742316243015
1.583943029546961867	-1.8484242918648858822	0.037243998864071752031
1.5840116770069276875	-1.848646986588805774	0.037345573139854044975
1.5841489549998439834	-1.8488715415157661592	0.037459292741922882441
1.5843606398856402429	-1.849101542825238198	0.037583662280213876727
1.584633346783100194	-1.8493230353195806437	0.037707460578497567494
1.5849697984844501875	-1.8495417550209898305	0.037834591385188014179
1.5853663429974167443	-1.8497585929472586397	0.03795421076348542283
1.5858185562036901661	-1.8499682715077774287	0.038057639619504521344
1.5863085559979428485	-1.850195607932527242	0.03813347946613682149
1.586901388213722397	-1.850476009863985194	0.038169458945674743233
1.5874787841361772678	-1.8507646304694587158	0.038146610926021035093
1.5879820403551050401	-1.8510642863902362354	0.038086007388581540056
1.5885465434649981287	-1.8514971148060515027	0.037961596404082906253
1.589011053413815322	-1.8520218147574456502	0.037790248893329041191
1.5893445296588315507	-1.8526532082243776234	0.037572150772558904341
1.5895292608173794413	-1.8533241073269044463	0.037321904000813567459
1.589592665938018623	-1.854015846767333775	0.037040347735777044702
1.5895706390179118461	-1.8547615586966079704	0.036717038090880831092
1.5895073450040737573	-1.8554300977298971986	0.036420757907459792857
1.589428255523690936	-1.8560999202966288468	0.036125177717245410269
1.5893473553941455112	-1.8573673609445333632	0.035572363544917086353
1.5893342366832152734	-1.8578256745506591674	0.035376465993486642947
1.5893298684323160508	-1.8584522396075138229	0.035099165455500444533
1.5892017118348396032	-1.8600996466815364894	0.03431833637905545159
1.5891617887637332629	-1.8605396120249542147	0.034094453218676559758
1.589103740533351683	-1.8610841331765910489	0.033801254692273546842
1.5890169537766924979	-1.8617214604690845992	0.033445981709950868555
1.5889179200720571217	-1.8623180752486208078	0.033110638534653583087
1.5887966022412554068	-1.862921973542752907	0.032773576704879098243
1.5886556370227609136	-1.8635522504417996181	0.032429269790303506815
1.5882293937764708769	-1.8650349701400250613	0.031655998406221873276
1.5880624197201944625	-1.8655094818098529874	0.031420060979207083129
1.5878705435366393672	-1.8660651191256369952	0.031146728858197393619
1.587670216055002248	-1.8666225860301606243	0.030887864717326875968
1.5874380074983012179	-1.8671303366510916266	0.030675792194687519915
1.587171205189802814	-1.8675846619309768304	0.030521364782668952698
1.5868723325834594995	-1.8680004577441116087	0.030410068273570060871
1.5865726690963137813	-1.8683932237824958378	0.03032890406736196004
1.5862879442926576257	-1.8687781574901054515	0.030270063166860664006
1.5859219219998199613	-1.8692950692896510567	0.030237788855003389088
1.5857540143778405817	-1.8695768215473689278	0.030220640938163796652
1.5854928270986361483	-1.8699951947082540382	0.030214886288282956361
1.5852765063686220515	-1.870320251608413864	0.030225085041994587121
1.5851008462907107965	-1.8705730613334157209	0.030245836210507519304
1.5848979684897999132	-1.87084057191477382	0.030282294307633145919
1.5846906177079531641	-1.8710826686414017139	0.03033033736342399464
1.5844738324903713256	-1.8713060557581435717	0.030390730851591343797
1.584227514047466201	-1.871498253900460762	0.030459731100797519943
1.5839687201739762745	-1.8716775747799430096	0.030534572304972598666
1.5836690513696567439	-1.8718419609285104066	0.030614014862824869001
1.5833707724420971186	-1.8719980821275821192	0.030684119590191943211
1.583038055635520136	-1.8721453908860898885	0.030749104351560682669
1.5826827036259385473	-1.8723099862141998617	0.030803771871655290238
1.5822376404925913018	-1.8725056224758949153	0.030837864162595884227
1.5818225510421921598	-1.872723179979630892	0.030847169531659106301
1.5814512041718469249	-1.8729181191142150187	0.030832846754809416917
1.5810150054472427161	-1.8731881000564662987	0.030794105414167632917
1.5805523362823825639	-1.8734722963369634385	0.030729369479472357085
1.580083162340385261	-1.8737969962119529477	0.030634139293581681002
1.5795847683139470075	-1.8741298667939656486	0.030501458764307817079
1.5790648043785147081	-1.8744803678892476562	0.030334188368155809434
1.5785086714765366178	-1.8748651401725762167	0.030126872124885992893
1.5779322705395046889	-1.8752775478917913521	0.029893700027683722115
1.577100935577859131	-1.8759041192251388885	0.029535621379998381469
1.5766014098856375725	-1.8762780624891306491	0.029305337103223003808
1.5760962480368652106	-1.8766580808450059603	0.029060563672523173628
1.575499736471849932	-1.8771140928552094707	0.028762106831020362724
1.5749290045965993468	-1.8775471407372092969	0.028463867898046016358
1.574291939887948466	-1.8780291768899577409	0.028118126440266719146
1.5736807821775655736	-1.8784891318000858096	0.02777972155917259392
1.5730955154101902149	-1.8789221334069841074	0.027451246023467240631
1.5724884443075524132	-1.8793533298254230246	0.027109978395282910424
1.5718871351778809231	-1.8797662575776776794	0.026777561125861711749
1.5712820635169268968	-1.8801700242510590577	0.02644631266456945809
1.5706983521741211263	-1.8805779013065886396	0.026128000583405391888
1.5701262221298259991	-1.8810078066423046028	0.025823065033366947307
1.5695754761845577274	-1.881440454622403502	0.02554202641893141279
1.5690306498200716767	-1.8818820890996232897	0.025274964188388471947
1.5685122847580059702	-1.8823100545515030202	0.0250387759607666599
1.5680598034595214507	-1.8826864203489248606	0.024851388572737338756
1.5675989660434783701	-1.8830785335352195897	0.024692100934320383027
1.5671666308233083154	-1.8834613348260540455	0.024570632908580462839
1.5667785432069398777	-1.8838484844771754556	0.024483079246111080773
1.5664183617870024445	-1.8842490623895935542	0.024406945852286202753
1.5660981069388624221	-1.8846488371357614788	0.024331986859747047752
1.5658047986933743001	-1.8850402671501955698	0.024249124900403418864
1.5650441106968593363	-1.8860305403760901921	0.023994696251079826455
1.5648559817925715709	-1.8862722641909446253	0.023923048809763539785
1.5646113969724322335	-1.8865919466196141574	0.023819195000999927175
1.5643890458743465732	-1.8869248233479867238	0.023706184180966399788
1.5641892567690893756	-1.8872443667141629575	0.023595808778320400551
1.5640194173630892482	-1.8875558951433202282	0.023498122690011450514
1.5638781341256413615	-1.8878538864147738074	0.023416076269384439312
1.5637679672328246294	-1.8881292564977933957	0.023360443304602358794
1.5636890099684646049	-1.8883777329496569397	0.023337910080733742513
1.5636513314875808422	-1.8885932198306527585	0.023351798111144503323
1.5636515287494168192	-1.8887604090474416907	0.023402869967418006569
1.5636763672269287095	-1.8888809361215297411	0.023482155221831165631
1.5637270618040242098	-1.8889682274348031932	0.023593387414527249718
1.5638054753701697841	-1.8890132059053983404	0.023723478327428344087
1.5639093605866563053	-1.8890159051792767553	0.023863353431029667162
1.5640320289265978726	-1.8889769329145595922	0.024008279721304329191
1.5641782839297067031	-1.8889016382925258863	0.024155635662840638234
1.5643300159338899835	-1.8888149296171228286	0.024302869181996387959
1.5645011267465500637	-1.8886835347498289739	0.024438543677531048698
1.5646897650926587797	-1.8885370804173744474	0.024568111648795215585
1.5649914101657902421	-1.8883205477265196937	0.024731241419900022033
1.5655554002685108106	-1.8879958588825591637	0.024911594250006670326
1.5657417734608780613	-1.8878948947479226028	0.024968474297383146804
1.5660364911714663716	-1.8877677699240229536	0.025027451938941288473
1.5663649127593670674	-1.8876861973822629537	0.025066677231764696726
1.5667209956357677214	-1.8876594259147612131	0.025088833559575616367
1.5672133065914566341	-1.8877536398257517281	0.025102387009388955202
1.5675275466750184794	-1.8878942833066783002	0.025090522419959241512
1.5678982408856645403	-1.8882117071966253441	0.025053658379654081961
1.5681514320112770466	-1.888605662073399527	0.02500273242247997782
1.5683001658938753309	-1.8890606919358245985	0.024940045807468520095
1.5683584992813108805	-1.8895536168984619074	0.024865163584760808374
1.5683456076296515835	-1.8900851025402720662	0.024783160773427754392
1.5682897992365025797	-1.8906118817471322391	0.024713146239722396519
1.5682063740098668436	-1.8911763561827654723	0.024653524642702512315
1.5681476475555928829	-1.8917096252826739455	0.024617299061082009715
1.5680820551134013741	-1.8922504299700200203	0.024586062234032000917
1.5680137629951471645	-1.8928668832614365947	0.02454938398631677926
1.5679248616266421301	-1.8934494975409681405	0.024508734074551830756
1.5678146256288836291	-1.8939753478350964677	0.024452247805727113372
1.5676712545363331586	-1.8945631520762145072	0.024371706619894479423
1.567514780118375084	-1.895173632157938215	0.024276452871906838843
1.5673691878209168316	-1.895814872052741018	0.02416798218761482403
1.5672538150984267613	-1.8964831231098027153	0.024054474917534023753
1.5671877637592337429	-1.8971858165481485514	0.023942908143815902489
1.5671663903992378852	-1.8979051748555595402	0.023844796837265119782
1.5671690489480463171	-1.8986129991752527246	0.023758572471232846518
1.5671505763286326385	-1.8992929764655179792	0.023679792036695578722
1.567072713586648014	-1.8999001454187203208	0.023602054610265849055
1.5668704632156633672	-1.9005886219695211636	0.023503358658710244572
1.5666963564348963533	-1.9009261737354170574	0.02344302710658003816
1.566490479709808481	-1.9012072773075447962	0.023386488239442278919
1.5662579153933797738	-1.901477490240501389	0.023330398991285646038
1.5660415346412628335	-1.9017368807894681204	0.023283175444319539199
1.5658497294447253356	-1.9020095259637392893	0.023237809865961914918
1.5656882139087457961	-1.9023074159714987719	0.023188404486344925404
1.5655523925124155138	-1.9026422535972458139	0.023130809711610581664
1.56544608041598865	-1.9029845434311447594	0.023066559354609154908
1.5653453843196938333	-1.903350720982262434	0.023001503030326699017
1.5652572156219362043	-1.9036975763139176721	0.022955390625307010161
1.5651637127559108187	-1.9040538378692637433	0.022936479776586644885
1.5650227575505053501	-1.9045375490372440375	0.022950596514446842955
1.5649274222970814829	-1.9048330358729477219	0.022990330285145646472
1.5648113609014355774	-1.905125225055255056	0.023061506897145880868
1.5646390116302157924	-1.9054587600838257533	0.023168604196228768238
1.5644035783685692476	-1.9057749053122112759	0.023290134018676779404
1.5641180577392326256	-1.906094765660705459	0.023415767082821628553
1.5637569134791893255	-1.9064118757220189782	0.023539287982655476839
1.5633429251780270874	-1.9067137904654398728	0.023640702469494994514
1.5628861028734726268	-1.9070037429510890981	0.023710207876085149376
1.5623945998087285236	-1.9072928424215609411	0.023745535112649474724
1.5618876218467367956	-1.9076258595101291959	0.023742575326755162995
1.5613504000507520963	-1.9079632688604808433	0.023698088266517737532
1.5607486891990551836	-1.9083838153081376099	0.023598704932347308594
1.5601757684092141254	-1.9087795648695482509	0.02346446880946477867
1.5596612621359633444	-1.9091319598031315508	0.023315494918296833515
1.559097279241822509	-1.9095751755242480474	0.023124210463247960035
1.5585297940474840406	-1.9100168996766715424	0.022909248563470371168
1.5579482479916373361	-1.9104806026271206054	0.022677907707768577006
1.5573836826198625971	-1.9109429762296723521	0.022446292638334298247
1.5568081839277223555	-1.9114330484699484369	0.022205716042076457245
1.5562370177245330449	-1.9119296638027110102	0.021963117667433706276
1.5556691765574195419	-1.912438143147479952	0.021714499189258437001
1.55509536811585658	-1.9129676207012293876	0.021455973498305264818
1.5545112084225827243	-1.9135296454849946013	0.021187608514963776618
1.5538924696638347633	-1.9141528174249433647	0.0209054374238746149
1.5533254073237325876	-1.9147388784435110942	0.02065116813448883426
1.5525113355234367862	-1.9155739316496462887	0.020297615652340183362
1.5521428692695062868	-1.9159490925489228719	0.020149379586774790463
1.5515862713832346831	-1.9165057062606734029	0.019937357441731889951
1.5509019727727408888	-1.9172223131782248906	0.019674754620809479372
1.550573665364150644	-1.9176062029489051586	0.019539155067408272431
1.5501283590217642683	-1.9181859133508671889	0.019335602408396490581
1.5497057099493620758	-1.918753021166469841	0.019138338324585384143
1.5492933777707942333	-1.9193171177546359818	0.01895301510686655394
1.5489090945782300057	-1.919860895749712526	0.018793908508589585171
1.5485503189758011988	-1.9203883078418018115	0.018671308562009342885
1.5482397725958934043	-1.9208706568784306157	0.018597558435128135057
1.5479831956143572658	-1.9213054646628757727	0.018570270715906146697
1.5477478289931743127	-1.9217529489273408316	0.018569441316338940184
1.5475441394724229749	-1.9222058927273604212	0.018584918463067808675
1.5473731570502309296	-1.9226574204319162309	0.018600949283882218382
1.5472159705114283401	-1.9230996607046368929	0.018604122355566601182
1.5470482678427313061	-1.9235435743235045347	0.018591110399385019081
1.5468815998355651686	-1.9239363223453349594	0.01856731701399627274
1.546710414010673551	-1.924304876138078324	0.018534716542612357515
1.5465439789575687879	-1.9246555861715002322	0.018498081628342686461
1.5463849324838325749	-1.9250345842504414939	0.018462170806744223478
1.5462778135409147584	-1.925368129169642728	0.01844442269250984312
1.5462215296932584341	-1.9256525713873309247	0.018447463249527295409
1.5462108792531690238	-1.9259705536664295522	0.018480184709571179785
1.54625878052009047	-1.9262615034975196782	0.018551651560600995045
1.5463620620423086383	-1.9265190751912859568	0.01865691854044545725
1.546522299823133606	-1.9267395345962510245	0.018800773664025022258
1.5469815781129880872	-1.9269655706110890847	0.019179017118675256715
1.5472402112524681339	-1.9270179818710124753	0.019380476888956884446
1.5474652842361056315	-1.9270180582376235101	0.019549743976387992661
1.5477060620700437976	-1.9270279958445544199	0.019724177136930767795
1.5479915207031775815	-1.9270112618860106846	0.019926617699900735226
1.5482922087154880053	-1.9269771713915637701	0.020143499061880679873
1.5485954752822732594	-1.9269466974740709908	0.020364945291103084962
1.5489064018135216827	-1.9269296410328438096	0.020593472183966551881
1.5492304996576709009	-1.9269375507140167336	0.020827068141765450737
1.5495575521351403481	-1.9269848243599516646	0.0210490206879588998
1.5498931749378457301	-1.9270905309517767368	0.021250899652918736615
1.5502355063473403085	-1.9272705116974864215	0.021431991968846195173
1.5505640096486306145	-1.9275394446747320387	0.021597919815013428418
1.5509553695940516693	-1.9280235115778805444	0.021794509311379224592
1.5511547709537261142	-1.9284032596152798078	0.021897200355764021018
1.551294995395669174	-1.9288388621403977918	0.021975731009176366348
1.5513830313534762162	-1.9293955493228616138	0.022038015602900213469
1.5513994396903492134	-1.929979124627799747	0.022074719402352439152
1.55135268996926734	-1.930567364726929469	0.022086611034320247082
1.5512442879920025351	-1.9311633860407542151	0.022075912904415663507
1.551093804097330997	-1.9317109226040822811	0.022049127356979593417
1.5509406307370876554	-1.9322608308496989071	0.022016981592245073868
1.5506938752915013779	-1.9332958955869283812	0.021995403494669361205
1.5506030505857322233	-1.9336645668515652918	0.021987638092475593476
1.5504713524125304236	-1.9342077223038536271	0.022001892171270520659
1.5503577640332122378	-1.9347120009952327724	0.02202750722744122383
1.550236385981681897	-1.9352131542648891571	0.022063272878522801473
1.5500762573556059465	-1.9356986065648575934	0.022107939965289563622
1.5498626998090121454	-1.9361566672008065915	0.022154306451947453765
1.5496169132095283238	-1.9365979557232908537	0.022206458142892633589
1.5493657730575871589	-1.9370565442355709429	0.022268004414441738836
1.5491376601946027503	-1.9375484492011256776	0.022334663133307789545
1.5489100472271817299	-1.9381362865472677726	0.022414101749686932835
1.5486938333727215955	-1.9387341486003795143	0.022491423792774616758
1.5484830156986948424	-1.9392367795395171193	0.022556901125304579941
1.5482680995614723773	-1.9396203428464064977	0.022604885707043255449
1.5479817257156336385	-1.940017554503286723	0.022648334912463489316
1.5476562276358210024	-1.9403597653514719212	0.022675105057541382336
1.5473024228388432277	-1.9406738931854994323	0.022686212278220745792
1.5469736820358059859	-1.9410022248151463931	0.022690059486120930238
1.5467199774561146697	-1.9413868942181833344	0.022688683604274364342
1.5465558526108336146	-1.9418305007922864736	0.022685224573133887932
1.5464791349736302095	-1.9423063402247779941	0.022681347303802078252
1.5464717956153277711	-1.9427848960779838805	0.02268366528490982359
1.5465000268188888732	-1.9432959613363829376	0.022701018037531568022
1.5464680868100515454	-1.9443740604553139129	0.022868554633130630527
